//X Y Z
1441
10.23217010 1.75523734 0.68550271
10.47278118 1.66165102 0.57001454
10.37595558 1.71161592 0.52716857
10.43568802 1.68812716 0.58197206
10.50749683 1.66306651 0.62239796
10.35424900 1.73534882 0.62934506
10.37881851 1.71085787 0.67784065
10.42963314 1.69091308 0.66589284
10.42596340 1.67184603 0.70546854
10.11822319 1.82998586 0.51430774
10.20834923 1.81053400 0.57543582
10.28989220 1.77971482 0.62085575
10.22169018 1.77359438 0.66103190
10.69461155 0.83185583 -0.20762095
10.69189453 0.88370883 -0.12594557
10.70657635 0.89094979 -0.04348217
10.75413895 0.78814411 -0.03798483
10.77438831 0.75446707 0.00507650
10.63543320 1.02298105 -0.08911066
10.63625240 1.03078842 -0.07667456
10.66846752 1.01687980 0.07935120
10.77704811 0.76269883 0.14588976
10.78338623 0.81079942 0.23923600
10.80164051 0.75476915 0.28054276
10.73584747 0.93136710 0.22003216
10.62432384 1.14247799 0.11848684
10.72706890 1.14175117 0.27267197
10.50990391 1.32095492 0.01415708
10.56408691 1.31605446 0.08591042
10.62946320 1.16236830 0.13475291
10.65747929 1.16344452 0.18869446
10.56060600 1.40821862 0.15546988
10.80358601 0.76064873 0.29627627
10.80059052 0.85814273 0.38212499
10.82222939 0.76708138 0.40176308
10.82742786 0.75668734 0.43036774
10.82509804 0.74489743 0.46068019
10.80970287 0.85209697 0.40885341
10.81039238 0.90007073 0.42584345
10.81541729 0.91849595 0.44081819
10.76863670 1.02000618 0.34169972
10.79064846 1.02928627 0.37665981
10.73812199 1.13736892 0.33777198
10.77647781 1.06617939 0.36498863
10.83504105 0.92049825 0.54503334
10.83867836 0.87455350 0.56301379
10.75719261 0.77441263 0.68026847
10.83535862 0.75621343 0.60680568
10.76063633 0.88778692 0.68352687
10.76439857 0.93816990 0.68030971
10.77397537 0.93076557 0.67107010
10.83040237 1.03327179 0.57701701
10.78610516 1.09603560 0.59078270
10.83147335 1.05266595 0.56640458
10.77181530 1.01066935 0.65273905
10.77612209 0.97940600 0.66066736
10.76825333 0.97612256 0.66864717
10.72947121 1.03905964 0.70508778
10.69562149 1.25777328 0.31070659
10.72007275 1.23994040 0.34908301
10.75319195 1.34979284 0.48248938
10.76579952 1.31468427 0.45301941
10.66474056 1.44885457 0.34938237
10.61042118 1.49112332 0.37092736
10.68165970 1.44311845 0.45932737
10.51062489 1.54645312 0.41935906
10.54048061 1.52942896 0.43316206
10.73638058 1.38360965 0.44948015
10.76236248 1.20851099 0.60884655
10.73859406 1.19381166 0.70093423
10.74560261 1.31950629 0.61563367
10.63333511 1.53107846 0.55787122
10.71296692 1.39194584 0.67594677
10.72363186 1.41158390 0.54910511
10.74660397 1.36614728 0.55662155
10.51611233 1.58757591 0.50840700
10.59134960 1.59256744 0.59684378
10.53127861 1.61776412 0.56091154
10.52595329 1.62939250 0.70139092
5.68124962 0.53555822 0.76213449
5.86342955 0.52231300 0.79994285
5.95916605 0.49785361 0.73688722
5.97441626 0.51509070 0.84076560
5.60069418 0.54247278 0.75171459
5.66395664 0.54962456 0.81743151
5.78354263 0.54237884 0.85001069
5.83949709 0.54230303 0.88895446
5.87443304 0.53913689 0.89716297
5.92742825 0.53687137 0.92522562
5.67478991 0.56557572 0.91752052
5.67240524 0.57684249 0.99349892
5.57637930 0.59529096 1.03838873
5.63325548 0.59190565 1.06529999
5.68233109 0.58456099 1.05359828
5.72836637 0.58021212 1.05951035
5.73196745 0.58767819 1.11363304
5.79738903 0.56680292 1.01645207
5.78769398 0.57832849 1.07652116
5.91544724 0.55715704 1.03656411
6.07460976 0.48724648 0.75409985
6.13806105 0.50091434 0.85731882
6.28752613 0.48439345 0.79406106
6.19242382 0.49241999 0.83181518
6.20136356 0.49441415 0.84632558
6.33178663 0.49165553 0.84570670
6.33766651 0.49603507 0.87459171
6.08340597 0.52132535 0.94323897
6.02240038 0.53320050 0.97963530
6.09627485 0.51561832 0.91633427
6.22249651 0.51286125 0.95322102
6.22716188 0.52759850 1.03846431
6.24776363 0.52674651 1.04198635
6.35887861 0.52532524 1.08562994
5.66992235 0.60071057 1.14637160
5.60467911 0.61832368 1.17808902
5.60006952 0.62060142 1.18953526
5.65204525 0.62466705 1.29199100
5.76874256 0.61005884 1.29496801
5.94196796 0.56974173 1.12621534
5.86416817 0.60651839 1.30785394
5.96871567 0.58877152 1.26153910
5.93382931 0.59728664 1.29296625
5.71655512 0.63257688 1.41605532
5.72876501 0.62407970 1.37577462
5.59595490 0.64743835 1.38605881
5.71921301 0.63885272 1.45657623
5.76659107 0.63477254 1.45947540
5.73481083 0.64385605 1.49965370
5.86730385 0.62283564 1.43058586
5.92628145 0.62144285 1.48492408
5.98995399 0.56692499 1.14458370
6.07095432 0.55542916 1.12625921
5.99319553 0.57832932 1.21530151
6.14495134 0.56100929 1.18189418
6.14581490 0.58009803 1.32162905
6.21918774 0.54736495 1.14026690
6.19472265 0.55566001 1.16695690
6.38374472 0.53768486 1.20704782
6.25511694 0.56176645 1.27670872
6.32758904 0.55332589 1.29089606
6.15653515 0.59001881 1.42076838
6.00631905 0.60290545 1.45095479
6.02140617 0.60092610 1.44683421
5.98780775 0.61020601 1.48364508
6.15372610 0.59456027 1.47023749
6.25163412 0.57456273 1.36590326
6.25283766 0.58118922 1.42000830
6.25526524 0.59104806 1.51020861
6.40812111 0.47411770 0.73656517
6.55150414 0.46593386 0.73782349
6.59234762 0.47154397 0.80803525
6.43369198 0.48684582 0.84218168
6.54623365 0.48092726 0.85064781
6.78059292 0.46887115 0.81151766
6.77519369 0.46943149 0.81555945
6.72846270 0.47482777 0.87156439
6.42045879 0.50761890 0.97161776
6.43583059 0.51264542 1.00914931
6.50194979 0.51001686 1.00929594
6.55195904 0.50497490 1.01035464
6.42245817 0.51497865 1.02141893
6.57074308 0.50526083 1.02510726
6.64791012 0.48371834 0.93494505
6.75064230 0.48975244 0.98793560
6.69469118 0.49575266 1.04236925
6.69569635 0.50757664 1.11710918
6.86887407 0.47518894 0.86105615
6.89616919 0.47742036 0.88349915
6.94153070 0.48867953 0.99290371
6.97408867 0.48764226 0.98646098
6.84559917 0.49824712 1.06508946
6.93324375 0.49235356 1.02275038
6.53549671 0.52724576 1.15879869
6.62574530 0.52531564 1.20571876
6.62068510 0.52658314 1.21445668
6.77087498 0.51552171 1.20603657
6.63931799 0.53523153 1.32076776
6.67134666 0.52863210 1.27444613
6.41926003 0.54238826 1.27145457
6.51713896 0.53982419 1.30105221
6.64510298 0.53732997 1.35285175
6.75527620 0.53167427 1.37707996
6.80399656 0.52923679 1.38707340
6.46483898 0.54769915 1.34652269
6.51564693 0.55126125 1.40667081
6.42690563 0.56572145 1.45398331
6.50320911 0.55769253 1.44806325
6.59235096 0.55849361 1.51347256
6.65028763 0.54160631 1.41137838
6.69413805 0.54089886 1.44300973
6.69298458 0.54281801 1.46653056
6.67142200 0.55076921 1.51414955
6.82111597 0.50699812 1.15422475
6.91677904 0.51223046 1.24927437
7.07519627 0.50302219 1.21271896
6.95174456 0.51824421 1.33305693
6.97810030 0.51975828 1.36588669
7.00502396 0.52393895 1.41901183
6.93026495 0.53186369 1.49210060
6.93919134 0.53140813 1.48890674
7.04673910 0.51446778 1.33238530
7.09702730 0.52211320 1.42209685
7.18689489 0.52115679 1.45646739
5.72564507 0.67418617 1.71923280
5.76246119 0.67074621 1.72854626
5.81383657 0.64409506 1.55086601
5.82945204 0.64765614 1.58689034
5.88428497 0.64232153 1.58221340
5.87527037 0.65684611 1.70423019
5.94827080 0.64447576 1.64985311
5.97427702 0.66246516 1.82699931
5.92258835 0.67802840 1.91121781
6.00633860 0.61686051 1.53436220
6.07103348 0.62699848 1.62885427
6.12542486 0.60456675 1.53809822
6.20250893 0.60780698 1.58836544
6.32619953 0.59244460 1.56626010
6.19006538 0.63149738 1.71959424
6.31494904 0.61169732 1.67284727
5.98550701 0.65611905 1.78615439
6.12064219 0.64789569 1.78592706
6.09950113 0.65220881 1.81256127
6.00087976 0.66899884 1.87427211
6.05107069 0.66861653 1.89368343
6.23753357 0.63725293 1.76278460
6.38251400 0.64509189 1.88191307
6.32183218 0.65006459 1.90031111
6.12276459 0.68563741 2.08868599
6.18403101 0.67976505 2.08044004
6.26990414 0.65796012 1.94152665
6.27773952 0.66361147 2.02056551
6.37540960 0.65631008 1.99923098
6.20121574 0.68045855 2.10395551
6.24630928 0.67867368 2.14132905
6.20533085 0.68635094 2.21751595
6.35589457 0.67633605 2.26053381
6.43876982 0.57797062 1.53922021
6.45683241 0.58854926 1.61930716
6.40466881 0.59301078 1.61894763
6.51209545 0.58587366 1.63546789
6.50229979 0.59778029 1.69597423
6.62194824 0.56580216 1.57091737
6.79789972 0.54336649 1.53393126
6.65703201 0.57594919 1.64812768
6.65308571 0.59115028 1.72383916
6.77737093 0.56940281 1.66834736
6.39816046 0.62982148 1.78829408
6.57924986 0.60349357 1.75729501
6.54859257 0.61826766 1.82077920
6.46073675 0.63337421 1.85768270
6.74902439 0.59616274 1.79145586
6.67689466 0.61452419 1.84719265
6.80477190 0.62045687 1.92049813
6.98030424 0.53712964 1.54157937
7.12493944 0.53360140 1.54562831
7.16006708 0.53534532 1.58093894
6.85966969 0.54024106 1.54298007
6.82975245 0.56423664 1.66488576
6.87281656 0.56407171 1.67890191
7.05225754 0.54077750 1.59604371
7.03789186 0.54975557 1.65873921
7.03190756 0.55708188 1.69895983
7.20809507 0.54720950 1.70531142
6.86188173 0.59495914 1.82717848
6.94529724 0.58482581 1.80757582
6.85239983 0.61104518 1.89461553
6.84929895 0.61519438 1.91187096
7.19610596 0.56038004 1.77586114
7.06504297 0.58810306 1.87477458
7.02371168 0.60583782 1.93223572
7.14030743 0.57818687 1.84865201
6.41119671 0.64913839 1.95043504
6.44141626 0.64840502 1.96475637
6.39650536 0.65536672 1.99639189
6.55082178 0.64270091 1.96368086
6.57808495 0.64550751 1.99786246
6.42818213 0.66096288 2.08319759
6.53959846 0.65572363 2.07599974
6.52601099 0.66322631 2.13422871
6.56715298 0.66096675 2.12948179
6.64004183 0.63947225 1.95193696
6.79981279 0.63993520 2.03245115
6.67247295 0.65468788 2.11169863
6.68948889 0.65478414 2.11907816
6.48204947 0.66732812 2.16000032
6.43584538 0.68334657 2.32800293
6.74646902 0.66395599 2.23435831
6.62373781 0.67641526 2.28772330
6.74532890 0.67391884 2.34115434
6.80746031 0.63180143 1.97853661
6.90657330 0.62934452 2.00660372
6.85254574 0.63776827 2.04265237
6.85059834 0.64723086 2.10959721
7.20188475 0.59373224 1.99310815
7.11376905 0.61584193 2.08764577
7.11844015 0.61850536 2.11227298
6.88626862 0.64810872 2.14544177
6.94383764 0.65152580 2.24509716
6.94930363 0.65161932 2.25114012
6.96222162 0.65416473 2.31977415
7.12374210 0.62847501 2.19227672
7.17080688 0.61929536 2.16522193
7.15090942 0.62958270 2.22663140
7.04970694 0.64052612 2.20614266
7.19507360 0.63496983 2.30444026
7.09213352 0.64403725 2.30931735
7.74143648 0.40800482 0.73710257
7.87781286 0.40684059 0.74871486
7.84916973 0.41153798 0.79182851
7.94083738 0.40696454 0.76616216
8.04057884 0.40250742 0.78104609
7.84436989 0.41512689 0.83353758
7.84688187 0.41943964 0.88275152
7.96076727 0.42111430 0.92014635
8.00497437 0.42998904 1.06644011
7.90946007 0.43481243 1.05477822
7.47488737 0.48385391 1.24124134
7.52113295 0.49131191 1.35209143
7.57854509 0.49712241 1.46849513
7.93814182 0.43865907 1.12452447
8.64904213 0.31392542 0.71493858
8.81314278 0.28984678 0.88414383
8.15133190 0.38665730 0.71393234
8.12967300 0.40196362 0.83790946
8.32998180 0.37894583 0.75508493
8.27940464 0.38529211 0.78499973
8.28965378 0.38644338 0.80271554
8.41702461 0.37321815 0.75386482
8.39724827 0.37539500 0.76425123
8.40008831 0.38841978 0.88876218
8.41309357 0.38654321 0.87459934
8.07407761 0.41745871 0.94020355
8.11644077 0.41814247 0.97806418
8.20735264 0.40603250 0.93376231
8.09109116 0.42545983 1.03325117
8.21135330 0.41971943 1.06543159
8.22495174 0.41789332 1.05732977
8.28510475 0.39873856 0.92899501
8.35759735 0.39581254 0.94767380
8.43697834 0.39339891 0.96612412
8.27893353 0.41637510 1.08880579
8.31674480 0.41213140 1.07901406
8.38061905 0.40771043 1.08934247
8.51953888 0.36034271 0.70649922
8.49930859 0.36846042 0.75855112
8.62903118 0.36713016 0.78080481
8.60506821 0.37001675 0.82626921
8.69511223 0.37289846 0.85629451
8.58609772 0.54791874 0.78349578
8.58045197 0.60122001 0.76072967
8.62192154 0.60052425 0.87696427
8.56922531 0.38507354 0.96040118
8.53328609 0.39587027 1.05653656
8.62996578 0.38606089 1.04929686
8.61600685 0.39226678 1.11072493
8.67747974 0.37539563 0.98821944
8.72220516 0.37305716 1.00073230
8.80733490 0.34473935 0.93285763
8.84098530 0.33936501 0.95810139
8.71047783 0.46668845 0.96342880
8.72892475 0.48768663 0.98674846
8.70878601 0.37893826 1.07173991
8.82603455 0.37099791 1.10676134
8.76660728 0.52857989 1.06692564
8.62117481 0.67810929 0.97096342
8.62569332 0.69206607 1.06306159
8.15670490 0.43013728 1.18259728
8.08834743 0.43261221 1.22246385
8.04577827 0.43652219 1.24185896
8.37234116 0.41732219 1.18618226
8.26815224 0.42825636 1.23503053
8.39361668 0.41991803 1.26903045
8.20769691 0.43623513 1.41623306
8.15192509 0.44655040 1.52614498
8.21296406 0.43917733 1.48224783
8.32123947 0.42971402 1.36999333
8.27419949 0.43382683 1.40683460
8.41207027 0.42680228 1.39335060
8.39446926 0.43307939 1.47223175
8.37764454 0.43660983 1.51308870
8.45786381 0.40855533 1.16312599
8.47957325 0.40742132 1.16930461
8.57925701 0.40212795 1.19864082
8.49140072 0.41626251 1.26577055
8.58299732 0.40446240 1.22448075
8.64070702 0.39948264 1.22766471
8.84226513 0.48560497 1.16844118
8.74188995 0.39892170 1.31060040
8.81093311 0.38483393 1.24216902
8.65023613 0.68914455 1.15942562
8.66894722 0.65007412 1.13950586
8.66043186 0.66623545 1.14344037
8.74571991 0.60694975 1.27495944
8.76207733 0.60104501 1.28999496
8.67801952 0.74133646 1.24566948
8.72337341 0.71866351 1.27862489
8.46079826 0.42528030 1.39950669
8.55790043 0.42460552 1.44117045
8.68707752 0.40871626 1.35902953
8.73364353 0.40755475 1.38275707
8.79958725 0.39776886 1.34717751
8.73403549 0.41248065 1.43539083
8.84346485 0.58207643 1.32508993
8.85532665 0.64446092 1.32427561
7.26637793 0.53034651 1.60206091
7.30321741 0.53927958 1.69443929
7.25247622 0.54964304 1.74228096
7.23156023 0.56151438 1.80176330
7.27751446 0.56822848 1.90695488
7.40860558 0.55527192 1.87950814
7.33725357 0.56129915 1.88916147
7.33863449 0.58043760 2.02906823
7.42074442 0.56711036 1.99236977
7.22607851 0.60400742 2.07709336
7.28141356 0.60457647 2.12259889
7.43175077 0.56345254 1.97505724
7.51956463 0.56883043 2.08380294
7.44841623 0.58513415 2.11871123
7.41345263 0.60293943 2.25381207
7.47860909 0.58383614 2.14828539
7.43692923 0.59242088 2.17848325
7.54293251 0.58070511 2.20914602
7.54533482 0.58361989 2.24179769
7.43391705 0.61019009 2.33896780
7.56822348 0.58688080 2.30271721
7.88209534 0.55785125 2.21381187
7.91825533 0.56453723 2.27237201
8.17422485 0.44856459 1.56562281
8.26537418 0.44745481 1.60759234
8.41240501 0.44071639 1.57546949
8.25372314 0.45656219 1.69521856
8.34413815 0.45526326 1.70994687
8.08950615 0.49609596 1.87299562
8.09231472 0.52103990 1.84874725
8.04312229 0.50725210 1.89281738
8.30147934 0.46567681 1.79099894
8.36746883 0.47225106 1.90180135
8.35116482 0.47444218 1.92182231
8.36986160 0.47393370 1.92527783
8.18106461 0.60310608 1.78646147
8.23407173 0.66728187 1.83987164
8.23299599 0.68373567 1.87638628
8.21709538 0.70045072 1.85168231
8.26725578 0.61599612 1.87905741
8.58046341 0.43016815 1.54876268
8.65752411 0.42361021 1.53012300
8.51259422 0.43755585 1.57306218
8.46916389 0.44632664 1.67134166
8.70726681 0.42172825 1.55193818
8.72060108 0.42337096 1.60740280
8.82417583 0.41828737 1.59028900
8.73950005 0.42796215 1.72109509
8.86312294 0.42074713 1.69842303
8.48540401 0.45578146 1.79730535
8.59940243 0.44683245 1.80525064
8.58150005 0.45133331 1.83005786
8.64546013 0.42187250 1.88032866
8.62209511 0.41298354 1.90846241
8.55309677 0.45969582 1.91000164
8.51383686 0.46150765 1.89417160
8.65354347 0.48905289 1.87137723
8.83050919 0.42385563 1.77151394
8.67820644 0.43738493 1.76853704
8.69448185 0.38902408 1.86583495
8.79045677 0.43420863 1.84321558
8.67865372 0.44990137 1.85884547
8.74540520 0.44750366 1.92576814
8.73348999 0.50523341 1.90610111
8.77065277 0.46020308 1.88353157
8.08768463 0.50615299 1.95196247
8.09382439 0.50755119 1.96776927
8.08168125 0.52707034 2.04596996
8.17472172 0.51003593 2.06573510
8.18675613 0.50771660 2.05749655
8.17293167 0.51522428 2.10522008
8.17850304 0.51656568 2.12099004
8.42023849 0.47228143 1.94141614
8.19720268 0.59294397 2.04288816
8.18589306 0.53192943 2.24101782
8.19363689 0.53595877 2.27551579
8.60876465 0.39972419 1.94942844
8.48483276 0.47484979 2.03964448
8.55528450 0.46528348 1.98617029
8.61209679 0.49908721 2.01477194
8.49498558 0.48199090 2.12470460
8.63436222 0.45940363 2.10073733
8.61924362 0.46931344 2.12809610
8.65913296 0.45773181 1.96843529
8.82759571 0.45133197 1.95771062
8.81803703 0.45076329 2.03530097
8.74262047 0.40534359 2.12481284
8.73400688 0.41040269 2.12895584
8.74535942 0.45644203 2.08516693
8.72491741 0.54587305 2.09670019
8.78491020 0.54013085 2.05177951
8.61623001 0.47731981 2.20102000
8.54364491 0.49994335 2.32167745
8.65368462 0.48377165 2.28979349
8.71638966 0.44715452 2.14540839
8.76074314 0.45975536 2.15162253
8.83969879 0.46231237 2.21268606
8.76721096 0.47086540 2.26501942
6.29019117 0.69450051 2.40026855
6.34045792 0.68894082 2.37328553
6.38976765 0.69196606 2.41296554
6.37886190 0.69388032 2.45443773
6.37568045 0.72592348 2.99734783
6.50740576 0.69052106 2.39951754
6.55257607 0.68759578 2.39368796
6.39977169 0.69720775 2.52736807
6.47998238 0.69278342 2.55114174
6.57638216 0.68762958 2.46281958
6.56069994 0.68743646 2.49553394
6.68853474 0.68268013 2.44825268
6.71577835 0.67684728 2.36019468
6.71551466 0.68141562 2.43925142
6.74413347 0.67820889 2.52204657
6.45476961 0.70793599 2.75299025
6.59532881 0.68321747 2.66725874
6.56693649 0.68858606 2.68611646
6.60570669 0.68228829 2.56532836
6.73316288 0.67495716 2.63514638
6.60911512 0.68204534 2.69312549
6.62106848 0.68434638 2.75745702
6.67616177 0.67545086 2.74253297
6.82365561 0.66979259 2.35283017
6.85783863 0.67228413 2.45792413
7.00507832 0.65846533 2.55144715
7.04998636 0.65403980 2.44953561
7.10696983 0.65042263 2.42088866
7.13019133 0.64629740 2.38255835
7.01392984 0.65657079 2.47900510
7.13822412 0.65250736 2.51327157
6.88651466 0.67208517 2.63322687
6.92726803 0.66507411 2.55826664
6.93257713 0.66426885 2.58177495
6.88144398 0.67383099 2.70376658
7.19023705 0.65460825 2.59617639
7.04157686 0.66755223 2.67306614
7.01567030 0.67486250 2.76046085
7.11981297 0.66778541 2.68803501
7.19926119 0.66745788 2.70579386
6.44086266 0.71796817 2.89382219
6.58867788 0.70106095 2.89671159
6.69126129 0.67651975 2.77300644
6.63645458 0.70104039 2.93639874
6.59127712 0.71424574 2.99548864
6.50701523 0.71737570 3.02286077
6.59771585 0.72425640 3.12046003
6.59058666 0.72969496 3.17028189
6.68114948 0.70827073 3.01219058
6.75231075 0.71652931 3.10452390
6.81420279 0.67672920 2.81731653
6.89793730 0.67851681 2.85069585
6.89877892 0.68008810 2.89573884
6.82747316 0.68266577 2.92019010
6.97013378 0.67982191 2.87462091
6.97778559 0.68363178 2.92005444
7.04004097 0.68195826 2.88538241
7.21722984 0.68044198 2.87708020
7.20627880 0.68283641 2.90351701
6.81478691 0.69253355 2.97241282
6.82234859 0.69873714 3.01158929
7.00334549 0.69344610 2.98963022
6.84161520 0.71926320 3.16355109
6.94368124 0.70951611 3.09559441
6.94414043 0.71153051 3.10958147
7.18040943 0.69088340 2.97234726
7.12511539 0.69592464 3.00030661
7.04914808 0.70990288 3.12497115
6.72391224 0.72608858 3.17509389
6.79724932 0.72779602 3.22866440
6.70405579 0.73952448 3.33196974
6.83269978 0.72290957 3.19492650
6.82091427 0.73009002 3.27017546
6.95919275 0.72610199 3.21825504
6.87216854 0.72953069 3.28407717
6.98487186 0.73013610 3.30713224
7.05206871 0.71931338 3.19166327
7.10364103 0.71473205 3.17410135
7.08695555 0.72225386 3.24837804
7.15293646 0.71757889 3.20796967
7.19778490 0.71828818 3.27593660
7.20014811 0.71940976 3.31343770
7.29044294 0.63511920 2.38942623
7.38976336 0.62003988 2.37280536
7.35286474 0.63327634 2.44849968
7.24223232 0.64108515 2.40783072
7.28302813 0.64102626 2.44142938
7.34793282 0.63853180 2.50745964
7.32196999 0.64236486 2.51967263
7.52297544 0.60346186 2.38947558
7.61500311 0.58906782 2.37539339
7.61489344 0.59710771 2.45085478
7.51819372 0.61896175 2.54871845
7.57935333 0.60951877 2.54141045
7.28685331 0.65354884 2.61387992
7.37142181 0.64916426 2.64522457
7.30057764 0.65888655 2.66520834
7.23514557 0.66902953 2.72838116
7.31102228 0.66621590 2.73423147
7.47536802 0.63046938 2.60108161
7.55568123 0.63933474 2.73801756
7.63650799 0.58460414 2.35197949
7.66377544 0.59221512 2.44025731
7.65487480 0.60161984 2.54995561
8.02998638 0.56711102 2.47969484
7.65452003 0.60535789 2.59259915
7.66826630 0.62434816 2.74028659
7.77354002 0.60860312 2.72391438
8.01208782 0.57237881 2.57690072
7.95314169 0.58468926 2.62823176
7.92949581 0.59351796 2.69082665
7.27221870 0.67132860 2.76806545
7.41500616 0.66267025 2.78235388
7.41979027 0.67591596 2.88786030
7.40178537 0.68254298 2.96779728
7.46647787 0.66815692 2.85950232
7.56864738 0.65005988 2.82532954
7.43882561 0.67635590 2.90038562
7.49287653 0.67372954 2.94615912
7.59412956 0.66107762 2.95387435
7.34484005 0.68922406 3.02359986
7.38266802 0.68768781 3.02080441
7.21895981 0.70549142 3.11622000
7.25548792 0.71038085 3.17108369
7.29703712 0.70497292 3.14568281
7.39197493 0.69965112 3.14772820
7.50779676 0.68629408 3.12052083
7.52434349 0.68467909 3.12998056
7.47319746 0.69281501 3.13285017
7.62458563 0.66982287 3.10258293
7.68112230 0.62732500 2.76484680
7.74437094 0.63372415 2.83958030
7.67757893 0.64052039 2.83217311
7.66694069 0.65335780 2.92018533
7.85135221 0.61795920 2.80852675
7.97454786 0.60451311 2.77908254
7.86526442 0.63028336 2.87529874
8.03107548 0.61887085 2.88538146
7.84994555 0.64230704 2.94193506
7.63708305 0.66305107 3.02444673
7.76965714 0.65749949 3.02614069
7.75550032 0.66710287 3.10960340
7.80142069 0.66076833 3.07325721
7.78159523 0.67075181 3.15778017
8.02046776 0.63501823 2.98762918
7.88639069 0.64308292 2.96902609
8.02995205 0.68822825 2.97021961
7.98937321 0.64362174 3.03369236
8.03776360 0.67618543 3.03859806
8.00784588 0.64656395 3.07133341
7.95671368 0.65836740 3.15480685
8.12778473 0.55778927 2.40853620
8.23117542 0.55373025 2.46578646
8.15479851 0.56481802 2.55060720
8.18323135 0.56888819 2.62595320
8.07873917 0.58335936 2.66994214
8.17920685 0.61667007 2.72173524
8.28095341 0.55645704 2.56560016
8.27143097 0.56166035 2.60382366
8.29481030 0.56638384 2.65852284
8.25382900 0.57427311 2.70612574
8.28119469 0.61795276 2.70110750
8.29428291 0.57576841 2.74828005
8.32262707 0.57547754 2.76024008
8.38294125 0.60318363 2.69408083
8.34965706 0.61452526 2.69305658
8.34592819 0.65133190 2.70360541
8.29745579 0.70877093 2.70609450
8.67897415 0.49319887 2.36177850
8.66135216 0.49971202 2.38759255
8.74184704 0.48724985 2.36725283
8.79449272 0.47977957 2.35195899
8.77225780 0.49788848 2.45109272
8.66577053 0.51277256 2.48538542
8.68846416 0.52041531 2.54814911
8.80870056 0.49457961 2.45431042
8.66082764 0.52526808 2.57299256
8.79568291 0.51155037 2.56533098
8.86051083 0.51807523 2.64854097
8.50223541 0.54820102 2.64723539
8.64270687 0.53861195 2.64234114
8.46082306 0.64970005 2.70166540
8.60220051 0.65505546 2.71865273
8.72302818 0.54339892 2.69303250
8.79290295 0.54239953 2.73625255
8.68593597 0.66731703 2.75693583
8.06803703 0.61115170 2.81599927
8.07928467 0.64311069 2.80613399
8.13857651 0.69481969 2.76454830
8.13530731 0.71048921 2.77359080
8.10555649 0.61505157 2.89376259
8.15303421 0.61594903 2.92887974
8.24755669 0.58122307 2.76224184
8.34203339 0.60013521 2.93169546
8.41845226 0.59751755 2.94235086
8.39982033 0.44628060 3.14614773
8.11119652 0.57017326 3.02538872
8.12372208 0.63620889 3.04738688
8.05079746 0.73179764 3.00807643
8.07051277 0.61462706 3.07383943
8.19751644 0.63591915 3.07434797
8.08805084 0.65039998 3.14859438
8.09212685 0.67194444 3.17219400
8.31386566 0.61799341 3.01558065
8.40832424 0.60744292 2.99165320
8.30087471 0.63679761 3.11769390
8.71551418 0.45868495 2.96759248
8.47675419 0.57038730 2.77284741
8.60621166 0.57713228 2.85231876
8.52926350 0.58829892 2.89368486
8.56974125 0.58378124 2.87728333
8.59595585 0.59496862 2.96777678
8.74828720 0.56053561 2.81270027
8.82542610 0.55308807 2.82840157
8.70520687 0.57289159 2.86610556
8.75136852 0.57428253 2.91337252
8.65934753 0.58486891 2.92816687
8.79382133 0.66448265 2.96349025
8.79407501 0.67639869 2.95361996
8.80805683 0.72295707 2.92865252
8.48132992 0.45515168 3.15651441
8.55704212 0.44839120 3.07953835
8.57072258 0.45058388 3.09802675
8.60161209 0.46003574 3.11218524
8.49549484 0.60247433 2.99142241
8.61713409 0.59622872 2.98793864
8.48450661 0.61876494 3.07978821
8.48262501 0.63393229 3.16940904
8.61570358 0.61584753 3.10556865
8.68998909 0.59853685 3.04270339
8.80195236 0.58105987 3.00014091
8.78741741 0.64358926 3.00460792
8.79562283 0.70623523 2.99365520
8.78720188 0.66311157 3.06911540
8.68433571 0.60727876 3.08827209
8.81374264 0.59386122 3.09258151
8.78460979 0.69365072 3.11836195
7.40260935 0.70773500 3.32047272
7.36613703 0.71097702 3.33999991
7.46297550 0.70338678 3.25358844
7.57762337 0.69232380 3.32196403
7.42231035 0.71039706 3.40191627
7.32559252 0.72060233 3.44513750
7.52429247 0.71200854 3.47380924
7.53891897 0.70765841 3.44515181
7.53928804 0.70995378 3.46170759
7.64187765 0.68309838 3.26230860
7.68683243 0.68427992 3.28540373
8.01962948 0.66323990 3.26107264
7.83924818 0.68275714 3.29946995
7.87414217 0.67945498 3.28787398
7.92158270 0.67804897 3.30220699
7.95603371 0.67673963 3.32198787
7.68810797 0.70087665 3.44193983
7.63453484 0.70955497 3.50135374
7.78012657 0.71025890 3.51132488
7.87545300 0.69340390 3.41078258
7.98094845 0.68540728 3.42099476
7.97176695 0.69144183 3.45445251
8.01980591 0.68264538 3.43431759
7.92369270 0.71356517 3.55685592
8.03133965 0.70029873 3.57406855
7.95055485 0.71502882 3.59802222
8.37566662 0.50648433 3.27066398
8.42796326 0.51103336 3.29228687
8.42037582 0.51293379 3.29190683
8.16010094 0.64970320 3.19019437
8.16300964 0.64022362 3.26715922
8.17913151 0.65267968 3.27270484
8.19204235 0.65335965 3.31603074
8.14430237 0.66196489 3.36235666
8.31185341 0.64617014 3.19769430
8.25953770 0.69166386 3.33173871
8.37864304 0.65368462 3.35982728
8.40305710 0.65338027 3.36127234
8.36228466 0.69659865 3.37875319
8.09882069 0.67061603 3.39654446
8.11778831 0.66909659 3.39905095
8.05195999 0.69069260 3.53005242
8.34470654 0.65867722 3.42266917
8.29656982 0.66038448 3.43904161
8.32333946 0.66015553 3.43832684
8.44754887 0.68705130 3.38108277
8.44578457 0.66272455 3.47085571
8.61015129 0.63442230 3.20872569
8.64022827 0.63806176 3.23373389
8.50388908 0.64220226 3.23539758
8.46729660 0.65015805 3.29615259
8.55397034 0.64890015 3.31747460
8.51428986 0.66045797 3.36872435
8.48107052 0.74196422 3.35201526
8.52497578 0.69618446 3.37011504
8.53176785 0.72496599 3.35821795
8.64391804 0.71851552 3.31284451
8.56084251 0.69605702 3.35608196
8.84239388 0.60939139 3.19806170
8.82948589 0.62561888 3.25554180
8.74120235 0.72321427 3.24647927
8.73837185 0.69817370 3.25811148
8.70732784 0.55101985 3.30176115
8.66502476 0.65333474 3.33352208
8.67154026 0.65943617 3.35636759
8.78169155 0.64571327 3.31026936
8.51810646 0.66034853 3.44610071
8.45748043 0.67038751 3.54737663
8.60249901 0.66467065 3.48369670
8.65575790 0.67468387 3.57397532
8.67626858 0.66550660 3.45712185
8.82100773 0.66033238 3.41327620
8.68291664 0.66986221 3.52605319
8.73232555 0.67016739 3.51633739
8.13817215 0.70547366 3.67541409
8.23709583 0.68787396 3.60549331
8.21203327 0.69856089 3.65166402
8.20789146 0.70366621 3.68228722
8.35298634 0.68246025 3.63540602
8.40596008 0.68092841 3.63340139
8.52339268 0.67704999 3.60641313
8.63208866 0.68244165 3.64339089
8.55187607 0.69307053 3.75198936
8.62100124 0.68920404 3.70608187
8.72845173 0.68606806 3.66097474
8.83753490 0.68503404 3.64129090
8.67314529 0.68912381 3.69675446
8.81918335 0.69183892 3.73033762
8.59390354 0.69908893 3.81577587
8.74482536 0.69924563 3.83169985
8.77354336 0.69688708 3.81243992
9.35665798 0.33140504 0.77411032
9.42679024 0.32164237 0.70806789
9.47694111 0.23788893 0.77725047
9.60059643 0.32177335 0.77048755
9.52746105 0.32656667 0.83479977
9.56653214 0.32905221 0.83424532
9.51672268 0.32773164 0.90523702
9.63951302 0.29392314 1.04609120
8.99302292 0.34972885 0.79974574
9.04803658 0.34578276 0.77037752
8.96792221 0.35468084 0.85763687
9.14716339 0.33929718 0.73996657
9.14619446 0.34647137 0.81317371
9.22138119 0.34298798 0.81005335
8.94190407 0.36174256 0.94722056
9.01995850 0.35789764 0.92319131
8.93706989 0.34301713 1.02552390
8.95194149 0.37040451 1.09021807
8.99839973 0.36846313 1.08204925
9.12272263 0.35878685 0.95632058
9.22228813 0.35439107 0.94446647
9.08977985 0.36804804 1.07480216
9.19681931 0.36684516 1.08790755
9.31437397 0.33865225 0.71108067
9.34334755 0.37429982 0.75813437
9.36902332 0.33429617 0.79992849
9.33292961 0.33874515 0.82356393
9.34581757 0.33994362 0.83972913
9.36724186 0.34384584 0.89585382
9.40014267 0.34123611 0.83348864
9.38401508 0.35865888 0.81067306
9.43799210 0.35665181 0.87225270
9.35507393 0.58882105 0.75422740
9.37718010 0.59160757 0.78640908
9.36959457 0.68590969 0.77459693
9.44581890 0.70548058 0.85230327
9.60245991 0.54396033 0.71111584
9.59665489 0.55407995 0.85899764
9.60540771 0.57857710 0.87676424
9.60353279 0.56526411 0.90625727
9.37486362 0.34923708 0.97477961
9.57718086 0.33637711 0.91195333
9.54778862 0.36252329 0.92275017
9.49256229 0.43334499 0.92674237
9.54070663 0.33357021 0.98023003
9.55430317 0.34373358 0.99792045
9.66381073 0.33421326 0.91593409
9.51264668 0.50101781 0.95094770
9.58921528 0.53517514 0.91888684
9.53089142 0.34749076 1.04169405
9.65806389 0.34877965 1.07405305
9.66622925 0.36879680 1.08686996
9.52202320 0.43825737 1.06156743
9.65018654 0.51487064 1.07915056
9.49520683 0.64233512 0.91467482
9.63866997 0.65764612 0.96783477
9.62233925 0.55152029 1.05253398
9.60007286 0.63206512 1.01587343
9.67919159 0.57459748 1.09011483
9.66407490 0.63001615 1.10664105
9.65749454 0.65357697 1.02086794
9.24831963 0.32804644 1.20326138
8.94352150 0.37057245 1.12444174
9.02946186 0.37179250 1.14026320
9.02904892 0.37195328 1.14311826
9.04303741 0.37486240 1.19649827
8.90281582 0.38117957 1.27448952
8.86797047 0.38620502 1.30137932
9.00322151 0.37678567 1.23728275
8.98543358 0.37713161 1.24860346
8.91247845 0.48325643 1.25890255
8.99498367 0.43500465 1.25770724
9.18304729 0.37013003 1.12286770
9.18244934 0.37634820 1.21862400
9.14242077 0.38102919 1.31565905
9.23526669 0.37971768 1.28747296
8.95662785 0.48062861 1.32597280
8.94106483 0.52703905 1.34037089
8.98575592 0.47413364 1.32300425
9.03843307 0.46852678 1.32928896
9.04464340 0.51993006 1.38067198
8.89726353 0.40342602 1.45840359
8.99597454 0.39777690 1.46587038
9.10016632 0.38182715 1.33003485
9.08488083 0.38554889 1.38785267
9.09382343 0.38687488 1.40808105
9.12803173 0.38467145 1.37495005
9.19083118 0.38727033 1.41854465
9.24879742 0.38511819 1.39755809
9.13227749 0.44219682 1.34048343
9.16955280 0.39449450 1.50891817
9.03360462 0.62299669 1.37385750
9.01982784 0.56794798 1.39018750
8.91521454 0.72621882 1.34206057
8.92989254 0.73344731 1.34181035
9.09875202 0.54419667 1.40353310
9.08014584 0.67504257 1.36114883
9.27605438 0.37401736 1.23434246
9.33233166 0.41505122 1.31295514
9.45383549 0.45973486 1.26132071
9.57904720 0.36008447 1.17372727
9.49199104 0.50393152 1.30926669
9.45523739 0.59760714 1.31717515
9.39527416 0.69422066 1.30359840
9.61279583 0.56132942 1.18890703
9.58589935 0.53870052 1.19936419
9.68229294 0.67608029 1.13428402
9.62186050 0.68423820 1.21838307
9.56353474 0.59387088 1.26609957
9.48812294 0.55112487 1.30691659
9.36827183 0.38487831 1.41633534
9.33444881 0.52193725 1.38626778
9.30004692 0.38942289 1.47289145
9.55464077 0.38295695 1.40325379
9.56801224 0.39256442 1.50805283
9.64365578 0.38513944 1.44670308
9.58660221 0.39408520 1.52179039
9.68338203 0.39371341 1.51606822
9.28085423 0.67214757 1.33953309
9.74145889 0.32076040 0.78636003
9.82576275 0.31264162 0.72846472
9.87446022 0.31329092 0.74652839
9.97876358 0.31024966 0.74936336
9.91099072 0.32211748 0.83994067
9.89912415 0.32644629 0.88159704
9.96637058 0.32885829 0.93742919
10.07565594 0.32781932 0.98636436
9.99098778 0.32308400 1.05831075
10.26207256 0.30286714 0.79242837
10.13307190 0.30856967 0.80936903
10.19657421 0.30833411 0.83356774
10.20399857 0.33036944 0.90070087
10.38716888 0.29987672 0.77520567
10.12827110 0.32032120 0.94377667
10.22051144 0.31505734 0.93067074
9.79971695 0.33924964 0.98186946
9.75497341 0.34921032 1.08754122
9.78360271 0.34721231 1.06824899
9.93907452 0.33732703 1.02590108
10.05769444 0.33555600 1.05427110
10.04488564 0.38910726 1.09461522
9.69717503 0.73543018 1.03745258
9.69266224 0.69851083 1.06198168
9.68749332 0.64928758 1.06853628
9.70581150 0.73568106 1.10503078
10.24158478 0.36518285 0.90837377
10.48274994 0.34798080 0.77615374
10.40082169 0.43838009 0.86430830
10.46751404 0.50298637 0.83917254
10.49461651 0.69904900 0.90219390
10.13409710 0.34683070 0.99040300
10.15457249 0.36975101 0.99675852
10.24399471 0.37604970 0.91247571
10.28998375 0.42901254 0.93210804
10.21558380 0.40567693 0.96842760
10.19011402 0.46239156 1.01701045
10.26008606 0.54873258 1.01977861
10.22634411 0.55830389 1.07287216
10.38332081 0.60350668 0.96223098
10.45666313 0.61984801 0.91429901
10.36585140 0.65153819 0.99433404
10.45786953 0.64880693 0.92138690
10.31070232 0.62255877 1.02152359
10.45149612 0.33051807 1.13365078
9.71221161 0.35398236 1.13163352
9.75909901 0.35848096 1.18969953
9.88329220 0.35137627 1.15192652
9.72917652 0.50200206 1.14456069
9.79209423 0.45584741 1.19661105
9.76703739 0.36955354 1.30256915
9.87733841 0.36285776 1.25195992
9.86038208 0.44321251 1.23675370
9.83874702 0.49909154 1.23198056
9.96278763 0.35227811 1.17383826
9.96399021 0.37766045 1.20066214
9.99750614 0.34867281 1.16121030
10.00817776 0.35039729 1.17981040
10.04249001 0.35063294 1.18640864
10.08788395 0.44459048 1.14686441
9.93980408 0.41378826 1.23977208
9.95771027 0.36657292 1.30368447
10.00694275 0.35928905 1.24649608
9.98753643 0.52312672 1.27745175
9.74048901 0.58406442 1.13389838
9.80166340 0.58012509 1.18334579
9.83938980 0.56595767 1.21855247
9.82429886 0.63191640 1.17444360
9.81585217 0.71260089 1.12991083
9.82734966 0.72161114 1.13264620
9.92142391 0.56523871 1.27766824
10.09080029 0.53967416 1.23327351
10.07401562 0.62931466 1.27206421
9.93760681 0.66297400 1.23370540
10.01979923 0.70476359 1.25262344
9.72894859 0.37687740 1.39058053
9.69495678 0.37920156 1.40878010
9.90141773 0.37466764 1.36005676
9.98304558 0.38757983 1.45653188
9.97134304 0.38929006 1.46734500
9.92424965 0.39091861 1.48640466
10.00032043 0.39266199 1.49290538
10.03335953 0.39675707 1.52000535
10.26944637 0.33839443 1.16427982
10.29721832 0.33632758 1.15460396
10.30195904 0.34533376 1.21885550
10.41551495 0.33889702 1.19732964
10.43607330 0.35270926 1.28789163
10.41997528 0.35795882 1.32033777
10.24289799 0.63018811 1.13595045
10.23117161 0.67031825 1.20449615
10.28530121 0.71135616 1.18327570
10.11856937 0.62243772 1.25939322
10.20364094 0.66923666 1.24831748
10.24389362 0.71879804 1.24817050
10.11965561 0.36888719 1.32932413
10.10961342 0.38879752 1.47592783
10.34117889 0.37322500 1.39547098
10.44657707 0.37163299 1.39738858
10.46822071 0.46603185 1.47406590
8.95927048 0.40963191 1.55349970
8.96307850 0.41430572 1.60938132
8.99826527 0.41133943 1.59600997
8.97598076 0.41523445 1.63000524
8.92418385 0.42042869 1.69847465
9.07462692 0.40519401 1.56846201
9.18482494 0.39795461 1.54336023
9.25116730 0.39580756 1.53027129
9.10097980 0.41438192 1.67100573
9.14609051 0.41413245 1.68586898
9.17825603 0.41527382 1.71041059
9.27039623 0.41542107 1.71252394
9.00570679 0.42817882 1.85980082
9.05732632 0.43324423 1.91177154
8.94562912 0.43577462 1.93115473
9.11099529 0.42312890 1.79655075
9.23061562 0.41893551 1.74951458
9.21219349 0.42507529 1.81693137
9.16241837 0.43170393 1.88503742
9.24977207 0.43465054 1.91130698
9.30451870 0.39694619 1.54584908
9.44093323 0.40329984 1.61274493
9.37592983 0.41572213 1.71206892
9.42914295 0.40868124 1.65691721
9.49293423 0.39961621 1.57672286
9.55111790 0.40516004 1.62565517
9.65910625 0.40207174 1.59031796
9.51503181 0.41616982 1.71923447
9.60157108 0.41046289 1.66920996
9.66348553 0.41434777 1.68759334
9.56887054 0.46367756 1.72352016
9.61707878 0.44651005 1.70230281
9.37249279 0.42274326 1.78250968
9.47758865 0.42842621 1.81637704
9.36831188 0.42983818 1.84887719
9.35254765 0.43717062 1.92700529
9.57117558 0.39415196 1.75172150
9.63617611 0.42019796 1.74792433
9.53426552 0.45398965 1.76407135
9.54962158 0.50904405 1.75613642
9.54922199 0.52516568 1.80448389
9.54452038 0.43058860 1.87795162
9.57022285 0.43630785 1.87452173
9.56675625 0.48259509 1.89285994
9.58977985 0.44329381 1.93175364
9.59726143 0.54059571 1.78525078
9.62698555 0.54580969 1.83440030
8.90105534 0.44065624 1.96095765
8.87157249 0.44835100 2.05335951
8.87920570 0.44828239 2.05230951
9.02004433 0.45471328 2.14375520
9.14414978 0.44270238 2.00388861
9.24376011 0.44763908 2.03116798
9.14157009 0.44861877 2.06956697
9.10568333 0.45246536 2.10985827
8.94913673 0.45488185 2.14703226
8.86761570 0.46808308 2.28497267
8.96494675 0.46466380 2.27439618
8.95188141 0.47034696 2.32776022
9.15094185 0.45901927 2.20334148
9.23788261 0.45919320 2.16001201
9.26890755 0.46420005 2.20462251
9.06988525 0.46563101 2.29889178
9.16886806 0.46641845 2.30546474
9.19366169 0.46338350 2.25408697
9.20783710 0.46545953 2.27373147
9.33240604 0.44381616 1.99441242
9.33425236 0.44901651 2.03866673
9.46515083 0.45378965 2.02371645
9.49628258 0.45134079 2.00080919
9.59288120 0.44826776 1.98084378
9.63496494 0.46376726 1.98979831
9.53873062 0.46446267 2.08371973
9.51185608 0.46996009 2.12707090
9.63961697 0.46732521 2.09123659
9.44540310 0.47199270 2.18400931
9.43227291 0.47696775 2.24639416
9.37721157 0.47559482 2.31150079
9.51875019 0.47263634 2.15315056
9.54999638 0.47451580 2.16628337
9.67656136 0.48587930 2.25845504
9.59085464 0.48708045 2.29597640
9.72011852 0.40730548 1.62199199
9.84192085 0.40090546 1.57441270
9.89099121 0.39911708 1.55624115
9.75602055 0.42022562 1.70045125
9.93733883 0.40120786 1.55803537
10.00615311 0.40026534 1.53959906
9.90175438 0.41613406 1.66084421
10.08703518 0.42725131 1.70181119
9.78856373 0.43518546 1.78308856
9.73149967 0.53629053 1.82152772
9.81361294 0.43896514 1.80177510
9.76558495 0.53420824 1.86302912
9.78217602 0.45040852 1.90223551
9.80526543 0.44946888 1.88150311
9.89772511 0.44139746 1.80635202
10.00748634 0.44250390 1.79622257
10.02837658 0.46788809 1.92973685
9.69922447 0.54436237 1.89757347
9.70458794 0.54529291 1.90498972
9.71766949 0.54046541 1.90800261
10.18159676 0.41490844 1.64204085
10.33170414 0.40460768 1.58182645
10.47164536 0.45528436 1.53776371
10.40701294 0.43066162 1.71575844
10.23517227 0.44532740 1.79212511
10.11447525 0.46943820 1.92479420
10.26255608 0.45842260 1.85239887
10.21579838 0.47063845 1.90775692
10.45040226 0.43940821 1.75171781
10.48779964 0.45511684 1.82363439
10.39521503 0.46065772 1.85016775
9.69531536 0.53347760 1.95912063
9.70750523 0.46032113 2.04417157
9.90968800 0.47265732 2.01203227
10.07424068 0.48084182 2.02799606
9.93285942 0.47854814 2.05838513
9.99031448 0.48461238 2.09423852
9.97884655 0.48800990 2.13779211
9.76985836 0.47962990 2.18690062
9.75700188 0.49452317 2.32123542
10.01373482 0.49007431 2.15105963
9.92779732 0.49146992 2.26969218
9.95045853 0.49093106 2.25640154
9.95350266 0.49738872 2.31283975
10.04687881 0.50311446 2.31263804
10.09778881 0.47635445 1.97036839
10.27540398 0.47857484 1.94267297
10.28083706 0.48366854 1.96726787
10.27089024 0.49504662 2.08526015
10.23095322 0.49450544 2.09997725
10.32009411 0.48773187 1.98828840
10.45421028 0.49706841 2.03136921
10.36265373 0.50433129 2.11768007
10.42143440 0.50388128 2.08356977
10.49562740 0.50919008 2.11742783
10.40920639 0.57620198 2.12973070
10.47218513 0.59822619 2.13706541
10.18572903 0.50060940 2.20607042
10.29475021 0.50546098 2.17958355
10.25923061 0.50504392 2.21220517
10.26860523 0.51066685 2.27666593
10.29736519 0.51329923 2.27606797
10.27207375 0.51301855 2.30344939
10.42797089 0.39479706 2.17413878
10.44082928 0.49748075 2.24582505
10.45653820 0.52643001 2.26420712
10.47925568 0.53609270 2.26715231
10.40279865 0.54433852 2.22355175
10.46839333 0.58618295 2.24027920
10.45034218 0.59391803 2.19965982
10.60484695 0.29619053 0.70663291
10.70721626 0.30346161 0.79341328
10.55733776 0.30691662 0.87164915
10.56658649 0.30794206 0.88329083
10.64905262 0.30574137 0.82671314
10.78697777 0.29465851 0.71213728
10.77430916 0.29784766 0.74518573
10.78100872 0.30592126 0.81542063
10.72194290 0.31374449 0.89985490
10.81573391 0.31787288 0.91106397
10.60326004 0.31884760 1.00969791
10.79218388 0.32343686 0.96902961
10.91496372 0.32675457 0.96334529
10.73720741 0.32797354 1.03120708
11.01930141 0.30326694 0.72745568
11.12444210 0.30736673 0.74696618
10.95844078 0.31502858 0.85026646
11.01250839 0.31719616 0.85210782
11.04295444 0.32028610 0.86980295
11.16846752 0.30636081 0.73931932
11.24717808 0.30467191 0.72653055
11.25315475 0.30729899 0.75026578
11.13089848 0.32073680 0.85753125
11.15532589 0.32765371 0.90726721
11.26821613 0.32372457 0.87307179
10.65691185 0.38744646 0.70607525
10.65581131 0.41863799 0.71600169
10.63926601 0.42479420 0.72872072
10.57955360 0.53052145 0.77674341
10.65103340 0.46346721 0.72969693
10.68074512 0.48325688 0.71247083
10.62425709 0.50454313 0.74916679
10.70101833 0.61627913 0.71056598
10.59832573 0.68435711 0.78050351
10.51133442 0.62301064 0.82629693
10.86004162 0.34030843 1.09138393
11.11011600 0.33926791 1.01045203
11.02200317 0.34065130 1.04085028
10.94379616 0.34604427 1.10322881
11.06809044 0.33970404 1.02500975
11.12219715 0.34945062 1.09327424
11.22890759 0.33522254 0.95552021
11.25493431 0.33984226 0.98901242
11.25204277 0.34528887 1.03583407
11.26523399 0.34913120 1.07606280
10.69964790 0.33749858 1.13077152
10.64781189 0.34240308 1.18476117
10.58460522 0.35579702 1.28268945
10.63211346 0.34813765 1.22603953
10.68613720 0.35380030 1.24869645
10.79143429 0.34204811 1.13083971
10.89031315 0.35691440 1.21441495
10.78867245 0.36244074 1.28211999
10.55978966 0.36334026 1.33371639
10.61049461 0.36654893 1.34398127
10.60041809 0.36807072 1.35603237
10.59948158 0.42078283 1.34452558
10.54395199 0.39508146 1.39062655
10.64581203 0.41470379 1.35036182
10.65833473 0.42412585 1.34942341
10.61372566 0.44912907 1.32577789
10.65737915 0.52628225 1.32853198
10.66812706 0.49996987 1.32827306
10.67302895 0.39081496 1.48460913
10.76735592 0.38375345 1.41938984
10.81100178 0.38343295 1.41144633
10.86920071 0.37468287 1.34826672
10.74358940 0.47341195 1.40256965
10.74316120 0.49374828 1.39040434
10.73782921 0.41919822 1.42775273
10.87979317 0.39837009 1.49398100
10.71798992 0.51861507 1.48495746
10.62319851 0.57344317 1.42294466
10.71616650 0.54600936 1.44647920
10.92646694 0.34933078 1.13859260
11.08339691 0.36556920 1.20396292
11.00683117 0.36747214 1.24441576
11.28407955 0.36174044 1.18915105
11.19281483 0.36690155 1.22278440
10.95835781 0.38077709 1.37071919
11.03251743 0.37917459 1.32548654
10.93317890 0.39164457 1.44544184
11.11538506 0.39544559 1.45061755
11.05069351 0.40776327 1.52632880
11.19312096 0.38658693 1.38671339
11.23346710 0.37877730 1.32714093
11.27670956 0.37989530 1.33884430
11.31859875 0.38057974 1.34621382
11.20324421 0.40707961 1.52567220
11.28339291 0.39664176 1.46135211
11.36827946 0.31394386 0.79093283
11.49145031 0.31761834 0.77844423
11.33332157 0.32017741 0.85522336
11.45987701 0.32115468 0.82719302
11.47515583 0.32729942 0.88295472
11.54770851 0.31653684 0.74458784
11.67258930 0.31791270 0.72017395
11.73362160 0.32742041 0.78108102
11.38870335 0.33010873 0.92430705
12.00114822 0.33113089 0.71258724
11.61155415 0.33425346 0.88204467
11.67834663 0.33575150 0.85895538
11.48570347 0.34758610 1.04298806
11.60489750 0.34257859 0.96349496
11.65409851 0.34096396 0.92211819
11.70868778 0.34555486 0.94719523
11.60890675 0.35437560 1.07801378
11.69588947 0.36146894 1.10757971
11.94720650 0.33312905 0.76621562
11.80023766 0.33392602 0.81725031
11.86130810 0.33855855 0.83849943
12.15013790 0.34615973 0.73773474
11.97092724 0.33973292 0.84431285
11.75475883 0.34331533 0.92267370
11.79119968 0.34418881 0.92133003
11.93816948 0.35203174 0.97049344
11.79559612 0.35333523 1.01866615
11.83802128 0.35926268 1.06800985
11.83973980 0.36419415 1.10982180
11.98835182 0.34926155 0.93792909
12.05919933 0.35506856 0.95286989
12.10463524 0.35713968 0.92785752
11.94941139 0.36105129 1.07639110
12.09401035 0.36428753 1.01922250
11.38504219 0.35953096 1.17922223
11.44623947 0.35933435 1.15817392
11.33580971 0.37603995 1.31256783
11.45292091 0.37667111 1.28191459
11.61885071 0.36225894 1.14689696
11.59152699 0.36688697 1.18935680
11.64450836 0.36628976 1.17519820
11.73179531 0.37182468 1.20394242
11.66472340 0.37511864 1.23448586
11.64211941 0.38665041 1.31782877
11.68916416 0.38791165 1.32158828
11.70188713 0.38592836 1.30773735
11.39085579 0.40614483 1.50644112
11.46107578 0.40068191 1.45238280
11.49503517 0.40067574 1.43941522
11.49705791 0.40781927 1.48717856
11.61365891 0.38732225 1.32437265
11.68322372 0.39079893 1.34151661
11.72485638 0.39207795 1.35052598
11.59934521 0.40998584 1.47817886
11.69545269 0.40768009 1.45086133
11.71037483 0.41152191 1.47622740
11.65359497 0.41785169 1.51603913
11.87875462 0.36967975 1.15889633
11.90580082 0.37253076 1.18485522
11.86374664 0.37724668 1.22351611
11.99063778 0.36769581 1.14328146
11.87472534 0.38835377 1.32523954
11.79899788 0.41404256 1.49469185
11.85937500 0.41086924 1.48001337
11.98896885 0.39086762 1.34432340
10.55625725 0.40396562 1.57055044
10.57566643 0.39668706 1.54964542
10.54151154 0.41133460 1.60880327
10.65074539 0.39789161 1.53185523
10.61612415 0.41595584 1.55830932
10.68556690 0.40642256 1.57248950
10.52546597 0.52377009 1.52874231
10.54893494 0.51948971 1.57903314
10.58940506 0.41818511 1.64446783
10.69217396 0.43206790 1.71189845
10.90323734 0.41348264 1.59157622
10.79941845 0.42117900 1.64338243
10.89641762 0.43212602 1.70626283
10.58344555 0.44483835 1.76139426
10.62335777 0.45028073 1.79009283
10.67600536 0.44993007 1.79668689
10.69651985 0.45651633 1.83393228
10.70867920 0.47494972 1.93610430
10.75881386 0.44329739 1.77017164
10.79946136 0.44439313 1.77617502
10.76537609 0.45232686 1.81934059
10.78064156 0.47464469 1.93599975
10.89962959 0.47121805 1.91076684
11.08974361 0.41455090 1.55842960
10.93930531 0.42454723 1.65213978
10.92566490 0.42633677 1.67180121
11.28810215 0.43106565 1.62575674
11.18588257 0.43348974 1.64913297
11.30144882 0.43734026 1.65496302
11.12123203 0.45141262 1.76498437
10.97267723 0.46058279 1.85732710
11.04251671 0.46251306 1.86276054
11.12767315 0.45673382 1.80192220
11.14461517 0.45939547 1.81326807
11.21659946 0.46201113 1.79254580
11.21833611 0.47042450 1.86107302
11.29134941 0.47213805 1.87192070
10.57458782 0.47881383 1.95606375
10.51046371 0.49100235 2.00109386
10.65560627 0.48400101 1.98741937
10.60749149 0.50443494 2.09150004
10.61327076 0.49715292 2.04472089
10.66671848 0.49515030 2.04665685
10.89194012 0.48531288 1.98599207
10.84487438 0.50344491 2.09802365
10.61370373 0.57764173 2.12382388
10.60400963 0.52964097 2.15762496
10.55101490 0.53709894 2.24514747
10.68713284 0.52715808 2.22273612
10.71089649 0.52940696 2.23487401
10.53935814 0.52898562 2.25997400
10.51226234 0.53273869 2.30774999
10.81783485 0.52212459 2.17798829
10.80871964 0.53718179 2.26073742
10.53860950 0.55066127 2.23682737
10.68315506 0.53884155 2.30991745
10.88298988 0.55070126 2.31880641
10.93402290 0.47906351 1.94882476
10.92352295 0.49483806 2.04056931
11.05761528 0.48234573 1.96419072
11.10253429 0.47775105 1.94118762
11.11752129 0.50220770 2.07547617
11.16433239 0.49224731 2.02346468
11.24536514 0.47989982 1.94661713
11.26097775 0.49091116 2.02177262
11.27946663 0.49485886 2.04640579
11.32549572 0.51028723 2.14485168
10.95311642 0.51785111 2.16215968
11.06643200 0.52985042 2.20431542
11.12577724 0.52066886 2.17446661
11.30186939 0.52276409 2.22315216
11.04306412 0.53771657 2.24028254
10.96772766 0.54471254 2.27263594
10.97441006 0.54976183 2.30638719
11.16893768 0.54119378 2.28138471
11.17599583 0.54867744 2.34341073
11.24494362 0.53990841 2.29563379
11.33193588 0.41916305 1.56801832
11.37840939 0.41932923 1.56503224
11.40295792 0.41617149 1.54759455
11.49437809 0.44972050 1.68959713
11.54684067 0.42346540 1.55260992
11.72673512 0.42365658 1.54500830
11.55210781 0.43887350 1.62361348
11.59860039 0.45563483 1.72804463
